ply
format ascii 1.0
comment PCL generated
element vertex 1400
property float x
property float y
property float z
element camera 0
property float view_px
property float view_py
property float view_pz
property float x_axisx
property float x_axisy
property float x_axisz
property float y_axisx
property float y_axisy
property float y_axisz
property float z_axisx
property float z_axisy
property float z_axisz
property float focal
property float scalex
property float scaley
property float centerx
property float centery
property int viewportx
property int viewporty
property float k1
property float k2
end_header
0.91234827 0.15961397 -0.16518395
0.91113299 0.15877131 -0.14320691
0.95377731 0.26701573 0.1579769
0.9474948 0.11215078 -0.37860847
0.90917689 0.15656368 -0.079822853
0.90789258 0.15572748 -0.058384612
0.90749454 0.15504757 -0.037896588
0.90980399 0.15483207 -0.019882211
0.9093852 0.15415408 0.00044406945
0.91168773 0.1539392 0.01840453
0.99927205 0.13883454 0.92965293
0.98749876 0.077693805 -0.52268612
0.91216516 0.15222155 0.077177681
0.9144516 0.15200819 0.095012464
0.91673797 0.15179482 0.11284718
0.91738766 0.15101716 0.14150712
0.92080688 0.15069808 0.16817842
0.98802084 0.084729142 0.94412392
1.0116714 0.34293368 0.47588012
0.81860185 0.16166975 -0.67624086
0.92291057 0.36045924 -0.38949776
0.92535812 0.36023083 -0.37040579
0.92518723 0.35898647 -0.34814611
1.0236845 0.36066517 0.56958616
1.0260814 0.36044148 0.588283
0.96887332 0.068593867 -0.093885764
0.96771151 0.068108417 -0.071491227
0.97503281 0.058248729 -0.045839723
0.96624428 0.067206077 -0.027887277
0.97369647 0.05762931 -0.01301026
0.9775095 0.047870714 0.0049366094
0.97629261 0.047462855 0.026900787
0.94758254 0.12806146 0.4556798
0.94921178 0.077331237 0.34256142
0.95150512 0.077117234 0.36045003
0.9776594 0.044467464 0.21057458
0.95067185 0.073530316 0.52696222
0.99761111 0.17856295 0.79087031
0.93475807 0.24892768 0.041076727
0.96423078 0.097084865 -0.53903615
0.95787144 0.053289261 0.68535608
1.0123779 0.16679724 0.94930953
1.0146378 0.16658635 0.96693772
0.98043716 0.07404726 -0.34970739
0.98300445 0.073807687 -0.32968152
1.0058997 0.085461639 0.98135096
1.0081354 0.085253 0.99879056
0.93234956 0.099527948 0.10093208
0.98673761 0.051572032 -0.19832742
0.93568355 0.12850915 0.38645592
0.94484401 0.079404593 0.22984938
0.94549054 0.078844532 0.25848502
0.9529677 0.10859435 0.54487085
0.93595588 0.13370621 -0.5000723
0.96566355 0.059243094 0.39224902
0.96489918 0.078615025 -0.63605708
0.81861252 0.2868343 -0.65256518
0.87818068 0.20567165 -0.59685081
0.95338857 0.083937682 0.044845797
0.91925627 0.31538823 -0.276447
0.95209539 0.083392039 0.066215582
0.95289385 0.082817793 0.096036598
0.95274395 0.082165487 0.12632376
0.8830328 0.20136558 -0.44890347
0.94442105 0.080610089 0.17150135
0.9439497 0.080154344 0.19141714
0.94627523 0.079937324 0.20955719
1.1515068 0.040708534 -0.62746298
1.17029 0.040976159 -0.62250328
0.94895464 0.078521267 0.28550655
0.95126408 0.078305751 0.30352089
0.82431203 0.035996426 -0.71034145
0.82662839 0.035780273 -0.69227326
0.83224064 0.035705522 -0.67995173
0.95379841 0.076903224 0.37833866
0.9532119 0.076458223 0.39735645
0.94813937 0.075265825 0.43643057
0.95040274 0.075054608 0.45408571
0.94975871 0.074614987 0.47265449
0.88320345 0.036562085 -0.67563403
0.89149266 0.036574271 -0.66602421
0.95291448 0.073321037 0.54445571
0.95221519 0.072886564 0.5625934
0.95445096 0.072677925 0.580033
0.81629896 0.26906699 -0.67061162
0.95931906 0.070058152 0.72024018
0.96152484 0.069852315 0.73744631
0.96373069 0.06964647 0.75465244
0.96552348 0.069229305 0.78043348
0.96730942 0.06881278 0.80616069
0.91815084 0.13964422 -0.088465281
0.9881748 0.32345977 0.34764713
0.89513582 0.32032642 -0.5196442
1.0226445 0.05962744 -0.60635799
0.87250757 0.26165766 -0.60964596
0.96246833 0.091086015 -0.26180956
0.96230322 0.090601705 -0.23950492
0.91626549 0.13540204 0.05411233
0.93707013 0.18779057 0.21639585
0.94677681 0.10741594 -0.17974019
0.91671085 0.13381411 0.11263555
0.9173606 0.13309078 0.14129613
0.92077988 0.1327717 0.16796744
0.92305934 0.13255897 0.18574829
0.99330127 0.067386724 0.96172094
1.0058732 0.067879304 0.98114401
1.008109 0.067670666 0.99858361
1.0408803 0.37973833 0.67226225
1.0444895 0.37940153 0.70041531
1.0468956 0.37917697 0.71918398
1.0139096 0.066629633 1.0674237
0.81947756 0.090104088 -0.70086634
0.82705176 0.090230159 -0.68110585
0.97230822 0.18340129 0.52272123
0.97460151 0.18318728 0.54060984
0.97395235 0.18242215 0.55913889
0.97623873 0.18220878 0.57697362
0.98975962 0.028302161 0.037577905
1.0232564 0.014176182 1.0695541
0.98854285 0.02796673 0.059542995
0.99100882 0.027736608 0.078778662
0.91720372 0.25188407 -0.12730974
1.0505303 0.31362087 0.91268361
0.96121126 0.10721669 0.63276571
0.96307307 0.10673875 0.65908498
0.95942944 0.056410126 0.52449673
0.96388626 0.28717753 0.18178119
0.96927136 0.086478807 0.79787189
0.97080249 0.036373481 0.68398845
0.94040376 0.20734957 0.19521376
0.97236311 0.26389065 0.33440882
0.93907684 0.1040714 -0.06679076
0.987441 0.054243874 -0.35798848
0.97773343 0.016628357 0.84028649
0.86265302 0.14879948 -0.66292298
0.93565685 0.11081816 0.38624769
0.96349531 0.163872 0.52475536
0.89250022 0.18181068 -0.37505433
0.96031368 0.061820865 0.24041921
0.89153641 0.065555245 -0.66568315
0.93595994 0.057483718 -0.66518855
0.98688596 0.029377325 0.39002186
0.99435258 0.022934718 0.419429
0.98622036 0.058920257 -0.64275712
1.0026844 0.059078492 -0.61656612
0.95667607 0.1015164 -0.31092337
0.98747969 0.020096451 0.60960788
0.95432252 0.08801493 -0.14447388
0.95677006 0.087786525 -0.12538186
1.0265323 0.10294622 1.0715147
0.96159035 0.063780248 0.1402797
0.96354824 0.063152142 0.17914443
0.96217465 0.062686458 0.19988646
0.96453935 0.062465791 0.21833186
1.1807489 0.016898599 -0.63528973
0.89487416 0.18158914 -0.3565371
0.96217257 0.061201997 0.27851164
0.9607206 0.060743622 0.29864308
0.96020091 0.060346715 0.31818235
0.9625265 0.060129702 0.3363224
0.9610309 0.059675407 0.35611257
0.9633472 0.05945925 0.37418076
1.2394786 0.042152345 -0.61757237
0.96509326 0.058850911 0.41139314
0.98448771 0.1608845 0.71996021
0.96294445 0.058012176 0.44968086
0.96201646 0.057430673 0.47783133
0.96106094 0.056851748 0.50576627
0.91151208 0.017218385 -0.66321766
0.95875782 0.056027405 0.54285061
0.99727845 0.15891953 0.84332508
0.96032196 0.055436041 0.5786441
0.95961583 0.055056538 0.59672862
0.96185851 0.054847255 0.61422211
0.96410114 0.054637976 0.6317156
0.96299362 0.054073233 0.65846509
0.97244269 0.037943751 -0.6597895
0.96008414 0.053082772 0.7026161
0.98007745 0.10342817 0.85857052
0.98229015 0.10322168 0.87583053
0.98450291 0.10301519 0.89309055
0.96398497 0.05182796 0.78022879
0.96728337 0.051520165 0.80595714
0.96643674 0.051153768 0.82294607
0.96862876 0.050949212 0.84004438
0.96776146 0.050584752 0.8568716
1.0478895 0.060465351 -0.60211062
0.97322422 0.05007498 0.89948285
0.87490445 0.26143399 -0.59094912
0.90603596 0.31930923 -0.43461934
0.90845817 0.31908318 -0.41572493
1.0175332 0.1215338 1.0013186
1.0270739 0.12218982 1.02069
1.0293465 0.12197774 1.0384169
1.0316191 0.12176567 1.0561439
1.0338917 0.12155359 1.0738709
1.0424631 0.12207916 1.0935462
1.0613834 0.017023638 -0.64627331
1.0103446 0.067462035 1.0160233
1.009452 0.067045614 1.0326523
1.0116808 0.066837624 1.050038
0.99465829 0.029977705 -0.073630489
0.99717724 0.029742641 -0.053981777
0.99604094 0.029399689 -0.031388085
0.99488634 0.029058456 -0.0089381225
0.99463165 0.02874548 0.012667957
0.95072132 0.077856675 0.32287988
0.93271261 0.13563123 -0.58828437
0.9288947 0.14460447 -0.57087994
0.92842323 0.14391153 -0.54703301
1.0060501 0.0087257493 0.046687219
1.0085599 0.0084915441 0.066264108
0.9746545 0.34806851 0.15567809
0.95821506 0.089357421 0.63298684
0.96006656 0.088907614 0.65922558
0.97209048 0.039121125 0.52102309
0.95731401 0.26668569 0.18556418
0.99548656 0.0215942 0.51477951
0.96646273 0.068392053 0.82314897
0.94456124 0.10817676 -0.22061519
0.9797461 0.018909955 0.68297392
0.9996525 0.0011329211 0.68096697
1.0042708 0.30208033 0.4967939
0.93617028 0.35796154 -0.26247472
1.0058202 0.032714639 0.98073012
0.98741442 0.049423181 -0.06722185
0.94212633 0.33378708 -0.12950905
0.9514305 0.12703967 0.50928754
0.99347484 0.027506484 0.098014325
0.89944589 0.19680633 -0.23437053
0.95648527 0.31037855 0.045409039
0.96492803 0.10626146 0.68535036
1.0056056 0.0062255706 0.25555134
0.96626019 0.28695601 0.2002984
0.9754194 0.076297112 -0.48321867
0.97004813 0.036052812 0.7016964
1.0248282 0.14027394 1.0031734
0.99002677 0.054002579 -0.33781889
0.986561 0.0077146152 0.85802734
0.99541849 -0.0012019195 0.87600166
0.99538225 0.0312571 -0.16235349
0.94015598 0.11039831 0.42134246
0.91924119 0.14818087 -0.62258887
1.0010307 0.0091941589 0.007533384
0.97355449 0.34985164 0.11564136
0.9494366 0.11344707 -0.42637524
0.97430354 0.03982709 0.48323676
0.96350354 0.091655724 -0.28519088
0.99965245 0.0017918746 0.62591767
0.97538954 0.043375723 0.27151087
0.97776347 0.043154195 0.2900281
0.98392653 0.033375513 0.3263059
0.94711792 0.11587968 -0.53883171
1.2362028 0.01699537 -0.6431244
0.94622988 0.1152238 -0.51430172
0.97853643 0.041257083 0.40615544
0.97702008 0.040877152 0.4257848
0.97422314 0.040290844 0.45508498
1.5585656 -0.01543761 -0.51929551
0.94847488 0.11279807 -0.40241995
0.91566944 -0.002579994 -0.65831351
0.97438383 0.038907114 0.5389117
0.97373527 0.038576562 0.55744582
0.97307307 0.038247298 0.57587218
0.97239691 0.037919324 0.59419078
0.97071946 0.037554435 0.61256289
0.97298282 0.037343219 0.63021803
0.9380874 0.20756572 0.17714554
0.99722785 0.01717406 -0.65912861
1.0153035 0.13948968 0.98392618
1.3104146 -0.010146779 -0.60687608
0.97150874 0.035525437 0.7366823
0.97071981 0.035207994 0.75412083
0.96890879 0.034855563 0.77145129
0.9230864 0.15048537 0.18595929
0.99746209 0.085140899 0.96271998
1.0528086 0.039030984 -0.63451731
0.97079474 0.033506367 0.85693985
0.9729867 0.033301812 0.87403822
0.97319829 0.032891005 0.89928055
0.97647589 0.032585144 0.9248473
0.9848485 0.032585964 0.94297153
0.89997864 0.29826227 -0.42681915
0.90238482 0.29803771 -0.40805045
0.905994 0.29770091 -0.37989745
0.87214136 0.18731029 -0.6439594
0.88450396 0.18847078 -0.61830419
0.88982719 0.18848826 -0.59250927
0.91211373 0.29566672 -0.30070436
0.88887894 0.18754826 -0.56844956
0.85443336 0.12934877 -0.67198926
0.86262465 0.13000396 -0.66314423
0.98444164 0.2214587 0.53872442
0.98675799 0.22124255 0.55679262
0.8935979 0.23554227 -0.31144315
0.89138997 0.18371417 -0.43876502
0.89033562 0.18278405 -0.41553164
0.85275221 0.073417187 -0.681171
1.004439 0.010005728 -0.060250159
0.96266228 0.061601702 0.25873891
1.0358303 0.2949124 0.82947469
1.0021852 0.0094629638 -0.014917448
0.97113913 0.35007703 0.096800826
0.97596985 0.34962624 0.13448188
0.96566111 0.1441222 0.5966987
0.96791756 0.14391163 0.61429995
0.94884151 0.11664227 -0.56470788
0.98439342 0.033107456 0.34567598
0.95818859 0.071829416 0.63278055
0.95855188 0.071295775 0.65920705
0.91404492 0.18993925 0.036791239
0.96142399 0.093848683 -0.39578202
1.0091218 0.0031674881 0.51104093
1.0115026 0.0029453158 0.529612
1.0036905 0.1032526 0.9641183
1.0424902 0.14005987 1.0937577
0.99223822 0.052231938 -0.22619893
1.051708 0.37872791 0.75672132
1.0541141 0.37850338 0.77549005
1.0057936 0.015132302 0.98052317
1.0150893 -0.0024727408 0.98225534
0.93850535 0.31359196 -0.12629753
0.94915426 0.1095586 0.49153194
0.91578859 0.076368488 -0.65738428
1.0110697 0.0082573397 0.085840993
0.97706062 0.34784397 0.17444676
0.8993603 -0.0021984456 -0.66756797
1.020712 -0.013218663 0.24756132
0.9596718 0.26646566 0.20395568
0.96865475 0.068187505 0.84024727
0.98699081 0.0097763389 0.70016444
0.9942587 0.00069490029 0.7175352
0.94606686 0.37930214 -0.24032712
1.0080824 0.050088335 0.99837667
1.0015236 -0.018954625 0.87643898
0.96292031 0.064250007 0.11919637
0.9407596 0.093202561 0.40245834
0.93608642 0.11700146 -0.62881321
0.98860592 0.025042437 0.26450405
0.9102639 0.19194351 -0.039887577
0.96927989 0.035733432 0.71929657
1.0247046 -0.015035727 0.42812321
0.97909284 0.016164763 0.87448275
0.99458832 -0.0014068536 0.8931182
0.99374425 -0.0016104977 0.91012698
0.99323869 0.030559162 -0.11616031
1.1033393 -0.029118393 -0.64929819
0.9590593 0.097567454 -0.57937545
0.96164507 0.097326159 -0.55920589
0.96681654 0.09684357 -0.5188666
0.96594942 0.096258186 -0.49417412
0.96160167 0.095331296 -0.46517423
0.96415979 0.09509258 -0.44522011
0.92330462 0.14159323 -0.13476972
0.96236724 0.094426982 -0.41988182
0.93583852 -0.022985797 -0.66613567
0.99098712 0.021228345 0.53473258
0.99037784 0.020948462 0.55357271
1.2980167 0.016404515 -0.59348553
1.3138511 0.016244782 -0.58007002
1.6182413 -0.016368836 -0.53351957
0.98582315 0.019802058 0.62814254
0.98330021 0.019364014 0.65564811
0.99719584 -0.0040297634 -0.65937817
1.2945728 -0.036191534 -0.62034845
1.3103743 -0.036855269 -0.60719043
0.9905237 0.00047862757 0.73558587
0.98877275 0.0002654737 0.75338501
0.9880116 5.40939e-05 0.77104032
0.99026805 -0.00015647571 0.78864157
0.99252456 -0.00036704532 0.80624282
0.99398535 -0.00078577158 0.84123003
1.357393 -0.011109537 -0.59431654
1.3752179 -0.011556516 -0.58110207
1.6708198 -0.050278604 -0.54019153
1.6851211 -0.050976105 -0.51514208
1.0493017 0.37895244 0.73795265
1.0308095 -0.026462095 -0.65669864
1.0456001 -0.027031502 -0.65142524
1.1284564 0.040277898 -0.62638843
0.93793315 0.12829922 0.40400329
0.94018269 0.12808929 0.42155069
0.94243228 0.12787937 0.43909806
1.005271 0.27929193 0.59110159
1.0076196 0.27907276 0.60942125
1.0990472 -0.0060077384 -0.64345735
0.87415272 0.11216152 -0.6597265
0.97854286 0.20203042 0.53989726
0.98084539 0.20181555 0.55785775
0.98314786 0.20160069 0.57581818
0.90925008 0.16755161 -0.4410044
0.90822822 0.1666909 -0.41751859
0.86997521 0.045799796 -0.6765843
0.97723204 0.044116285 0.23083292
0.97584695 0.043724112 0.251486
1.0276331 -0.010823462 -0.013020382
1.0228443 -0.010984801 0.012539594
0.9815492 0.033597365 0.30776173
0.95595974 0.072037406 0.61539483
0.99339664 0.026615808 0.16031803
0.99303377 0.026312936 0.18107986
0.93006092 0.249366 0.0044373609
1.0304883 -0.03181833 0.072165087
1.004438 0.0050166016 0.35654399
1.0116751 0.17614956 0.93203127
0.97880143 0.074793771 -0.39392379
0.9676736 0.034384232 0.79720497
0.96945614 0.03402235 0.82290584
0.98565853 0.0081645353 0.82346261
1.0368789 -0.03536842 0.52308774
0.99578011 0.032230183 -0.23002723
0.95206362 0.37567502 -0.13850124
0.81945026 0.071996637 -0.70107949
0.82826042 0.072139524 -0.6834746
1.0262412 -0.020272879 0.9670099
1.0055383 0.010279691 -0.083132125
0.94912755 0.091867626 0.49132371
1.0159322 -0.011328113 0.060856953
1.0184604 -0.011564037 0.080577493
0.89474702 -0.021467853 -0.67209667
0.96046251 0.093272112 -0.3718259
1.0244665 -0.032878034 0.24538966
1.0109417 0.0027152428 0.54882991
0.97812968 0.071738668 -0.23401578
1.008927 -0.017364712 0.69826269
1.0456333 -0.0049766297 -0.65116566
1.0111437 0.014969774 0.99866366
1.0196022 -0.00289388 1.0174578
1.1944178 0.041418504 -0.62303847
1.2195354 0.041880738 -0.62371743
0.95336694 0.078354999 -0.65523511
1.0194035 -0.01340064 0.26880968
1.0361332 0.2147662 0.98912191
0.97826511 0.018374681 0.71860665
1.0353091 -0.034584835 0.42433566
0.95139647 0.085289605 -0.0257424
1.0094255 0.049517602 1.032446
1.0060366 -0.019375764 0.91164148
0.94237888 0.092497401 0.4386816
0.92771238 0.24958517 -0.013882293
0.90941256 0.17226152 0.0006571922
0.97833008 0.085079409 0.89212543
1.0198286 -0.015721101 0.50805151
1.029699 -0.035972551 0.64009309
0.99576688 0.030323239 -0.096439712
0.83465731 -0.00087411603 -0.68469363
1.2048286 -0.032855481 -0.63620031
0.98016316 0.072736636 -0.2810677
0.98241329 0.049889874 -0.10623197
0.98137796 0.074553333 -0.37382603
1.0146397 0.038327482 -0.63340908
1.0293876 0.038522672 -0.62846804
0.92751729 0.12029796 -0.01540399
0.92713094 0.11972563 0.0051751113
2.2488136 -0.11475804 -0.47490454
0.97915554 0.072236791 -0.25746983
1.0135781 -0.017266544 0.67949206
0.97708535 0.071242258 -0.21070541
0.97602254 0.070747569 -0.1875387
0.97494137 0.070254602 -0.1645157
1.0795133 0.061424963 -0.59135956
1.086728 0.061403479 -0.57440305
1.3895329 0.015677689 -0.53235394
1.042436 0.10409846 1.0933346
1.006041 -0.018615922 0.83303469
1.0023261 -0.018801436 0.85910624
1.3823384 -0.039574608 -0.58847398
1.0037801 -0.019165196 0.89404023
1.0116544 0.049309608 1.0498317
1.0138832 0.049101617 1.0672175
1.0498589 -0.049287882 -0.65752548
1.0664467 -0.05019892 -0.65396267
1.1115509 0.016860625 -0.63242918
0.93790644 0.11060824 0.40379506
1.4335873 -0.012669936 -0.57405984
0.94240558 0.11018838 0.43888983
0.94465512 0.10997846 0.4564372
0.94690472 0.10976853 0.47398457
1.1210253 -0.029784244 -0.64503205
0.87662399 0.093433261 -0.66404265
0.9397068 0.31194428 -0.085468866
0.94210368 0.31172061 -0.066771984
0.94450063 0.31149691 -0.048075169
1.0446359 0.31417093 0.86670482
1.0469936 0.3139509 0.88509637
0.87159407 0.01741335 -0.67968482
0.89480555 0.017318303 -0.67164016
1.1996047 -0.0079410188 -0.62976336
0.95807242 0.055645965 0.56109673
0.95988053 0.098157145 -0.6044271
0.92010164 0.14586845 -0.30130938
1.0033096 0.0071929134 0.17472868
1.0020192 0.0069367862 0.19611987
0.95913845 0.2876206 0.14474668
0.96375686 0.086993411 0.75485659
0.96596265 0.086787567 0.77206272
0.98569995 0.078232847 -0.55637854
1.0173825 -0.01435245 0.37100893
0.87732983 0.28006017 -0.57203043
0.98490071 0.067171194 0.94337863
0.99327499 0.049985468 0.96151614
1.0436971 -0.054922637 0.52122247
1.0127528 -0.018481987 0.80674672
0.96587855 0.065607071 0.055766277
0.97597802 0.047101147 0.048039146
0.97841865 0.046873387 0.067077242
1.0342392 -0.038423296 0.95075464
1.0437826 -0.03890847 0.97014838
0.99171782 0.02598674 0.20227267
0.93240952 0.24914683 0.022757014
0.93929923 0.037500869 -0.6705972
1.0030142 0.0047729365 0.37689346
0.93580818 -0.043103173 -0.66637242
0.98836327 0.054679237 -0.38225168
0.97914964 -0.045475863 -0.65858936
0.99713182 -0.046437413 -0.65987736
0.99476594 0.031875845 -0.20648165
0.95450431 0.37544724 -0.11946315
1.1388612 0.016947903 -0.63959736
1.0033214 0.0097334869 -0.037511978
1.2049037 0.01690379 -0.63561463
1.0172691 -0.011756973 0.10274186
1.2517817 0.016859489 -0.63170254
1.2193837 -0.0585794 -0.6248998
0.97165507 0.033817153 0.84005809
1.064256 0.039085194 -0.62386537
1.0809422 0.039324015 -0.61953455
1.0306103 -0.036694679 0.7337085
1.0156291 0.014551213 1.0336506
1.030356 -0.056105845 0.89687288
1.0083194 0.007478484 0.15089458
1.0400716 0.6709106 -0.081143089
0.98813272 0.020372251 0.59110904
1.0072016 0.0020287803 0.60616046
1.0426778 -0.054668285 0.48181435
1.0147631 0.031880096 1.0504886
0.97660381 0.045087408 0.17088336
0.9795965 0.078431226 -0.58432645
0.97974652 0.0178997 0.75375485
1.0024099 0.011042315 -0.14685622
0.96635383 0.1447746 0.57850963
0.84611565 -0.019564858 -0.69361752
0.89182305 -0.040670428 -0.67917538
1.0272746 -0.052633803 0.24370192
1.5908505 -0.11048682 -0.58203018
0.98461235 0.050727513 -0.15199231
0.87916118 0.16940337 -0.64425147
1.0044976 0.28082722 0.55361265
1.0068554 0.28060722 0.5720042
2.3090444 -0.1180699 -0.46120596
0.98491389 0.049656525 -0.086726911
1.077998 -0.005640029 -0.64249957
0.86259627 0.11120842 -0.66336542
1.0178479 -0.037299108 0.87794638
1.0201412 -0.037513115 0.89583498
1.0193548 -0.037613489 0.91329402
0.89592773 0.21678022 -0.29326984
0.89477664 0.21571428 -0.27079245
1.0664128 -0.072634041 -0.65422672
0.93850309 0.093413129 0.38485709
1.4488422 -0.041958142 -0.58875811
0.96409047 0.14498582 0.56085449
2.3674803 -0.16649306 -0.49296403
0.82996476 -0.018781643 -0.7212975
0.94687802 0.092077553 0.47377634
1.12099 -0.053179074 -0.64530742
1.4297888 -0.098863155 -0.60368937
0.95000601 0.09067753 0.54536074
0.95224172 0.090468898 0.56280035
0.95447749 0.09026026 0.58023995
1.0481231 -0.021554595 1.0590545
1.4999081 -0.014221271 -0.53644991
0.9559862 0.089565411 0.61560112
0.88564503 -0.0018308749 -0.68018186
2.1249964 -0.10821925 -0.44983214
0.95792395 0.088091783 0.68576568
0.97432834 0.078922845 -0.62541991
0.97696245 0.078677036 -0.60487312
0.940925 0.12303215 -0.44951516
1.5291724 -0.014823424 -0.52837563
1.0170151 -0.012569563 0.18726695
0.99758887 0.022183733 0.47612959
0.99703258 0.021898909 0.49538279
0.95027375 0.10985991 -0.27042556
1.0292748 -0.033790078 0.34581056
0.99767643 0.0014585273 0.6537568
1.0165172 -0.017046651 0.65130126
0.997383 0.032719832 0.96210295
1.051493 -0.074799933 0.5191198
1.0228528 -0.036955331 0.80688787
0.97192025 0.3943876 -0.0072052889
0.82660085 0.017564176 -0.69248766
0.83221304 0.017416997 -0.68016696
1.0445229 -0.057149228 0.95232981
0.88317448 0.017368188 -0.67585993
1.004476 0.0067075235 0.21528368
0.96151239 0.28739905 0.16326393
0.93926877 0.017311061 -0.67083484
0.94920385 0.109221 -0.24731447
0.93237311 -0.083032005 -0.67350632
0.95533246 0.086754635 -0.081545874
0.97228605 -0.065857209 -0.66101128
0.99709982 -0.067641243 -0.66012692
0.89130121 0.18732223 -0.54955518
0.96090937 0.064883061 0.079918548
1.0572231 -0.075746886 0.71323603
1.0492154 -0.039241701 0.98893362
1.0069327 0.0064782603 0.23444749
1.2455724 -0.0088094473 -0.62508845
0.97453463 0.017220762 -0.66313237
1.0198232 -0.014580209 0.39004704
1.0379401 0.016952053 -0.64039856
1.033898 -0.035553567 0.56274843
1.0816395 0.016874898 -0.63375616
0.90036511 0.13357994 -0.64400095
1.058063 -0.075912043 0.75124407
1.5041952 -0.04405402 -0.57378745
1.0234867 -0.031917863 0.11978468
0.96149868 0.052505378 0.73724216
1.0319178 -0.053186506 0.30351236
0.97822571 0.015908942 0.89131129
0.9907105 0.030795086 -0.1358809
0.82753438 -0.00043749643 -0.71666235
0.95375735 0.089773402 0.5982154
1.0126387 0.003874793 0.45196816
1.0209975 -0.016666479 0.60367614
1.028283 -0.0368829 0.77060276
0.94143665 0.12365796 -0.4730486
0.99910039 0.022491664 0.45646349
1.6314796 -0.016843941 -0.50889862
1.2787173 -0.11413827 -0.63392884
1.1210606 -0.0063894182 -0.64475673
1.0309645 -0.05600341 0.87016284
1.0218587 -0.0031044497 1.0350591
1.0241151 -0.0033150192 1.0526603
1.0399867 -0.0035723571 1.07423
0.89474875 0.19724466 -0.27100983
0.85432488 0.017471634 -0.68463182
1.1566685 -0.0071273865 -0.63438523
0.94195795 0.097830713 -0.64985842
0.90414304 0.19636801 -0.19773117
0.92536378 0.24980433 -0.032202005
0.82993704 -0.037124489 -0.72151339
0.83226949 -0.03734215 -0.70331943
0.95201516 0.074404418 0.49025574
0.91154176 0.036892131 -0.6629861
0.99988371 0.17835088 0.80859733
1.7382287 -0.15541954 -0.55700779
0.98721868 0.024722904 0.2851401
0.95373094 0.072245397 0.59800911
1.0682087 -0.040608689 1.0820371
0.88561594 -0.021079093 -0.68040842
0.90985876 0.1911556 -0.019454688
0.9121682 0.19094008 -0.0014403708
1.0235589 -0.032387923 0.18326092
0.96370453 0.052299533 0.75444824
1.0111594 0.0036362845 0.47188661
0.987822 0.10270546 0.91898054
0.92581677 0.11903707 0.026381567
1.0393987 -0.053884611 0.36186591
1.9620913 -0.099306628 -0.47800782
0.99349147 0.0067854724 0.93567961
1.7105205 -0.052014265 -0.49789354
0.93726701 0.31524315 -0.16741362
0.93609923 0.31381649 -0.14506625
1.0400411 -0.056173705 0.80727118
0.82985991 -0.00065451191 -0.69852227
2.0729501 -0.10535269 -0.46260247
1.0577636 -0.021922039 1.0792041
1.058195 -0.076531857 0.97247094
0.91174239 0.19015411 0.018830776
1.0223032 -0.03250242 0.20492324
1.0219728 -0.032645334 0.22593848
0.9952665 0.10282194 0.94559377
0.9254005 0.11846752 0.046727099
0.93234283 -0.10310411 -0.67374253
0.93250924 0.35830319 -0.2910319
0.97437769 -0.086806543 -0.66435671
0.99706787 -0.088845067 -0.66037649
1.0211182 -0.037025131 0.82481438
1.0663451 -0.11750431 -0.65475482
1.1431395 -0.030573742 -0.64554584
1.1859226 -0.032133706 -0.64211833
1.0182277 -0.012986821 0.228182
1.2194216 -0.033464368 -0.62460423
0.97921264 -0.0037200779 -0.65809792
1.3007354 -0.062946677 -0.62732822
1.3475755 -0.065526426 -0.61584747
1.0080559 0.032506004 0.99816972
1.0200078 -0.03718213 0.85154176
0.9795894 0.046242706 0.10766649
1.0636395 -0.095455468 0.73182899
1.0725504 -0.077719606 1.0293992
0.96202958 0.26624563 0.22234719
0.96997249 0.067564815 0.87411839
0.87049836 0.20583808 -0.6410467
1.6808459 -0.083808996 -0.54849064
0.94815844 0.3316161 -0.051000126
0.99094909 0.026844211 0.14122605
1.0062778 0.0055038761 0.3158451
1.0338991 -0.034684934 0.44479463
0.87577456 0.2058962 -0.61561954
0.96117431 0.06337367 0.16062717
1.0038463 0.0057307757 0.29687884
0.97454304 0.075785019 -0.45859709
0.99419945 0.032826681 -0.27381423
1.008293 -0.019586334 0.92924273
1.0589025 -0.095131747 0.95439655
0.87405801 -0.0015858891 -0.68405807
1.1618658 -0.031278763 -0.64102876
1.0098599 0.0079936916 0.10786085
1.0095638 0.0077389083 0.12914421
0.96450913 0.05846002 0.43042955
1.0223454 0.23416285 0.88157231
0.84894657 -0.056896709 -0.6990599
1.1482511 -0.10241885 -0.65285867
1.4369254 -0.12834968 -0.61093479
1.2194595 -0.0083493311 -0.62430865
1.0052081 0.0059802425 0.2760444
0.90752196 0.17320932 -0.037682824
0.9098314 0.17299382 -0.019668449
1.0048884 0.0052569886 0.33646396
1.0685151 -0.11483109 0.91927963
1.8319007 -0.092133246 -0.51051742
0.97364843 0.075274639 -0.43411931
1.8735598 -0.094428554 -0.50012869
1.0218154 -0.015374329 0.46850058
1.0242378 -0.015600369 0.48739499
1.0379174 0.1404866 1.0580883
0.987122 0.052709375 -0.26610708
0.99677593 0.032586243 -0.25371647
0.95231056 0.3769666 -0.16016759
1.0435582 -0.055506766 0.63810182
2.5319939 -0.27497229 -0.42865092
1.0004452 0.010754976 -0.12286069
1.0029918 0.010517333 -0.10299638
1.0511525 -0.075570904 0.8074373
0.83229721 -0.018999305 -0.70310348
0.97017401 0.14370106 0.6319012
1.0207877 -0.011173008 0.035817795
2.4397194 -0.17184569 -0.43278363
0.8321588 -0.11071353 -0.70418298
0.9762249 0.075034209 -0.41402155
0.98162842 0.084771611 0.91785377
1.9042456 -0.096177518 -0.48096678
1.0402038 0.14027323 1.075923
0.98968011 0.052470654 -0.24615297
1.0278072 -0.036114559 0.66859013
1.0422121 -0.05558018 0.66692293
1.013643 -0.019857507 0.94738197
1.1033045 -0.052205391 -0.64956993
1.0663112 -0.13993946 -0.65501887
1.1483232 -0.054615185 -0.65229607
0.98532981 0.032824535 0.3647764
0.91435969 -0.041937564 -0.6685307
0.98959517 0.03808292 -0.64788848
1.0222347 -0.015945638 0.52682018
0.99716383 -0.025233587 -0.65962774
1.0298766 -0.036394544 0.69652838
1.0865601 -0.051279746 -0.6543541
1.0388854 -0.020692548 0.98699707
0.91157144 0.056565877 -0.66275454
1.4640516 -0.10132283 -0.60381055
1.2822467 0.01655823 -0.60639805
1.0297753 -0.052867148 0.26320699
1.0225573 -0.01650792 0.58438545
1.0493436 -0.074425772 0.4394398
1.6807957 -0.11703616 -0.54888177
1.0494717 -0.075652726 0.88083386
1.0185691 -0.012182396 0.14433941
0.98947173 0.12150156 0.87679964
0.98568416 0.051148918 -0.17508803
1.0518372 -0.074658476 0.45889097
1.0326724 -0.056322001 0.91494107
2.4129155 -0.21602033 -0.46885079
1.3306432 0.016089831 -0.56704968
1.0543308 -0.07489118 0.47834218
0.99672651 0.022713192 0.43794626
1.0197881 -0.011992038 0.12239063
2.0038013 -0.25715363 -0.50654382
1.0173318 -0.012371037 0.16614458
0.84727079 -0.075382687 -0.69640321
0.97661299 0.039611582 0.5012511
0.93586892 -0.0028684174 -0.66589886
1.2455338 -0.034395274 -0.62538958
1.7765946 -0.19381942 -0.5487144
1.5424365 -0.076226927 -0.57433051
1.0384084 0.19644389 1.0068693
1.0205424 -0.013811023 0.30915001
1.0438331 0.19681771 1.0255909
0.97325015 0.067258947 0.89968508
2.2085049 -0.15506406 -0.49835095
0.9819892 0.017690418 0.77124834
1.0349184 -0.035011709 0.48420185
2.4822452 -0.26966178 -0.4549548
1.0104502 -0.018267119 0.78878623
0.96621859 0.066020742 0.034826122
1.0169989 0.031671457 1.0679282
1.054441 -0.075335376 0.6364845
1.0288432 -0.038093504 0.93225682
0.97526246 0.044691142 0.19187774
1.0653011 -0.095639199 0.80770308
0.84897465 -0.03826414 -0.69884062
0.86575025 -0.058117654 -0.69381219
0.89346009 -0.060139377 -0.68213505
1.0153668 -0.013936264 0.33169267
1.0472972 0.19649443 1.0526124
0.97961473 0.067164734 0.92573911
0.98079902 0.017296379 0.79735321
1.0344383 -0.03514066 0.50404966
0.94239384 -0.14472473 -0.67791569
1.0307437 -0.070064835 -0.65721184
1.0498255 -0.071433291 -0.65778613
1.0917039 -0.074430056 -0.66141695
1.0348921 -0.15792342 -0.66417402
1.0646784 -0.095591865 0.82643926
1.0758139 -0.11578815 0.82679355
0.95197254 0.017255215 -0.66611212
0.91600972 -0.061788071 -0.67138708
1.5293827 -0.13665485 -0.59751272
1.2787567 -0.087936781 -0.63362044
1.3006551 -0.11611015 -0.62795395
1.2847841 -0.19367512 -0.64165545
0.85353863 0.045462519 -0.6829012
1.3965353 -0.12472758 -0.60356027
1.0741856 -0.11557811 0.84554964
1.4640071 -0.13078365 -0.60415727
1.2884101 -0.009689901 -0.61337185
1.6141151 -0.048056606 -0.565705
1.6464689 -0.081914604 -0.55712426
1.6463704 -0.14717387 -0.55789232
0.90182233 0.21505678 -0.21583344
1.0749613 -0.1155924 0.88305646
0.97393227 0.085489802 0.85782093
1.0333446 0.14091332 1.0224187
1.0103182 0.0498797 1.0158163
2.3221691 -0.16317591 -0.51611221
0.94712305 0.11754137 -0.60956901
2.4128458 -0.26221243 -0.46939448
2.1745749 -0.23656434 -0.47990772
1.0660802 -0.095683224 0.75086707
2.0186543 -0.29828808 -0.51651359
0.98877198 0.020649342 0.57250243
1.8568264 -0.12973127 -0.52842182
2.3929141 -0.30586573 -0.4597218
1.8864894 -0.13191357 -0.50937271
1.3609344 0.016087189 -0.56669265
1.3716155 0.015843542 -0.54629016
1.9302236 -0.13508351 -0.49852744
1.0111722 -0.01810641 0.77082497
2.2665672 -0.20287621 -0.48584062
0.82428455 0.017780332 -0.71055585
1.0623473 -0.095295429 0.63524312
1.039104 -0.056762964 0.93365306
0.95897549 0.10742532 0.61532611
0.83224183 -0.055685002 -0.70353532
1.0804324 -0.13564417 0.80777001
0.8657217 -0.077039942 -0.69403493
0.89510143 -0.079681195 -0.68505955
1.0267997 -0.033559095 0.32650304
2.4823167 -0.22225645 -0.45439684
0.97650182 0.049769115 0.92504954
1.0117072 0.084365629 1.0502443
1.0529211 -0.074846417 0.49880284
1.0235585 -0.036847439 0.78880018
0.9107585 0.17195216 -0.5786581
0.98660219 -0.17207599 -0.67123502
1.0916693 -0.097335979 -0.6616866
1.051713 -0.076013736 0.95336467
0.83221418 -0.074027844 -0.70375121
1.0828892 -0.13587344 0.82693386
0.95194173 -0.0031518822 -0.66635233
1.1978872 -0.10687866 -0.64316058
1.5293366 -0.16727456 -0.59787309
1.2786777 -0.14033975 -0.63423723
1.300615 -0.1426919 -0.62826681
1.0497587 -0.11572412 -0.65830743
0.86003608 -0.001341751 -0.68333578
1.0636599 -0.076976739 0.99150622
1.4368817 -0.15733971 -0.61127597
1.0837247 -0.13582088 0.86490852
0.95766997 0.089701459 -0.21273218
1.0430129 -0.054381113 0.42151543
1.0368676 0.35943493 0.67241877
1.4217542 -0.069622405 -0.59558451
1.0706344 -0.11540648 0.7313422
1.7381769 -0.18969695 -0.55741125
1.0133157 0.0024937149 0.56734717
1.0628014 0.060898788 -0.59589136
1.0133864 0.014760493 1.0161572
1.7171602 -0.11967027 -0.54047257
2.6250622 -0.33510041 -0.47337487
0.83785355 -0.14841777 -0.71481216
2.1745114 -0.27850118 -0.48040131
1.0770848 -0.13546231 0.75020051
1.0201672 -0.016284887 0.56574249
1.0294242 -0.052953806 0.28406119
1.8567716 -0.16607292 -0.52884954
2.1915393 -0.19614013 -0.48913315
1.0094784 0.084573627 1.0328586
1.1961559 -0.20581502 -0.65666568
0.983522 0.050307836 -0.12904029
0.94859868 0.081386283 0.14903824
1.0423683 -0.056112237 0.77037543
1.9759573 -0.17678988 -0.48781252
1.0035404 0.0089599537 0.027110331
1.046278 -0.075571649 0.9345628
1.0916348 -0.1202419 -0.66195619
1.3438438 -0.22958077 -0.64495635
0.83218646 -0.092370696 -0.70396709
0.84724271 -0.093979038 -0.69662207
0.86569315 -0.095962226 -0.69425762
0.88883185 -0.098441012 -0.68677986
0.90883225 -0.10059062 -0.68412113
1.0369051 -0.05365191 0.34241474
0.98152405 0.015601145 0.91703963
1.0342369 -0.035990603 0.6204409
0.98669744 -0.1089534 -0.67049211
1.0046989 -0.1108947 -0.67162991
1.0376763 -0.055953033 0.78882575
1.0497253 -0.13786952 -0.65856808
1.0916002 -0.14314783 -0.66222578
2.6553161 -0.28826693 -0.43398944
1.0582074 -0.20597629 -0.67104638
1.1721495 -0.15324262 -0.65518302
0.95188016 -0.043966077 -0.66683269
1.190984 -0.15558763 -0.64982289
1.5292903 -0.19789425 -0.59823352
1.004862 0.0036843098 0.9575274
1.0193355 -0.13408725 -0.66755694
1.2847046 -0.24633156 -0.64227515
1.3785723 -0.17903237 -0.61785018
1.1979246 -0.082107671 -0.642869
1.436838 -0.18632974 -0.61161721
2.4884162 -0.17541367 -0.40681842
1.0207187 -0.016108278 0.54645211
1.3174003 -0.090761863 -0.61529815
1.3715554 -0.094665617 -0.60967141
0.99414933 0.025759842 0.22123891
0.93710667 0.24870852 0.059396382
1.0078264 0.0043238648 0.41443083
1.3405324 -0.010676528 -0.60787243
0.87965029 0.20250691 -0.49888125
1.9122334 -0.28307974 -0.52875763
1.9709021 -0.29149774 -0.52724421
1.5818551 -0.046841543 -0.57355624
0.98907697 0.053569786 -0.31377128
2.1744483 -0.32043806 -0.48089489
1.0561851 -0.05823753 1.0432996
1.804109 -0.19675007 -0.53069788
0.93783879 0.10344818 -0.044990748
2.3085763 -0.42823243 -0.46485654
1.6465181 -0.049284983 -0.55674016
1.8864338 -0.16874412 -0.50980622
1.0357803 -0.03590297 0.60102361
0.88322151 0.20217367 -0.47102457
1.9301668 -0.17267457 -0.49896985
2.2486179 -0.24453413 -0.476432
1.7426908 -0.087271489 -0.52220178
1.057461 -0.075920962 0.77014124
1.055835 -0.075855993 0.78891361
0.94969034 0.11730178 -0.58954304
1.0554104 -0.039993547 1.0608487
1.3137425 -0.25156331 -0.64382988
1.3438025 -0.25697735 -0.64527881
1.1399344 -0.14925736 -0.67054617
0.84886223 -0.11279441 -0.69971782
0.8656646 -0.11488451 -0.69448036
0.88880265 -0.11776166 -0.68700731
0.90880257 -0.12026437 -0.6843527
0.92889893 -0.14280576 -0.68094593
0.95254856 0.08451578 0.014701485
1.0450946 -0.055490915 0.61862987
0.98666567 -0.12999426 -0.67073971
2.052844 -0.14390101 -0.49361005
1.7811967 -0.089391954 -0.51281679
1.0353321 -0.031807009 0.047034424
1.0678258 -0.11472319 0.93749553
1.1398985 -0.17305054 -0.6708262
1.1773454 -0.1783718 -0.66183811
0.89210546 -0.1375962 -0.69270182
1.2107403 -0.18306121 -0.64513594
1.0160183 -0.06899444 -0.66197634
1.5775634 -0.23550946 -0.60703242
1.3138236 -0.19785661 -0.64319777
1.0539498 -0.18290509 -0.66493648
1.3785301 -0.20699027 -0.61817926
1.1126474 -0.16908669 -0.66319716
1.0279111 -0.033894468 0.36662868
1.0161158 -0.004350842 -0.66121548
1.5292442 -0.22851394 -0.59859389
2.5839338 -0.23140205 -0.40098152
1.0625238 -0.09533342 0.683806
1.6420244 -0.27730516 -0.59179324
1.691535 -0.28502384 -0.55948198
1.0328431 -0.034354713 0.40509999
0.93983126 0.35761991 -0.23391759
1.0345974 -0.056063775 0.84345061
1.4036542 -0.15375967 -0.61094409
0.96212834 -0.023991207 -0.65767068
0.95657259 0.089137554 -0.18983573
1.6464196 -0.11454424 -0.55750829
2.1743851 -0.3623749 -0.48138848
1.0755187 -0.13518564 0.76944244
1.0305908 -0.053221907 0.32461876
1.0399876 -0.055890065 0.75180429
0.91069818 0.3177225 -0.37465939
1.8567168 -0.20241457 -0.52927727
1.804002 -0.2675502 -0.53153116
0.94741541 0.37742341 -0.19835149
1.8993622 -0.20698965 -0.51905924
1.0466127 -0.05547335 0.59901416
1.9431262 -0.21168362 -0.50798047
0.97792661 0.045485381 0.14974533
1.9898796 -0.21670015 -0.49717504
1.06692 -0.095775947 0.78887594
1.2908497 -0.27397248 -0.64939106
1.0626974 -0.058686011 1.0626401
1.3137021 -0.27841666 -0.64414591
0.93724751 0.12811019 -0.27766451
1.3677249 -0.28902689 -0.63955027
0.85172182 -0.13187405 -0.70493639
0.86563605 -0.13380681 -0.69470304
1.4177608 -0.2987397 -0.62673461
0.91334623 -0.16042009 -0.69216365
0.9364273 -0.16415763 -0.69299948
1.1344645 0.063205898 -0.57952267
1.9899963 -0.13938132 -0.49626502
1.2909294 -0.22106251 -0.64876831
0.95673978 0.10763396 0.5978865
1.0709325 -0.11533264 0.78871733
1.0915656 -0.16605374 -0.66249537
0.95132518 0.11050053 -0.29368034
1.1398627 -0.19684374 -0.67110622
1.1825411 -0.20371826 -0.66849571
0.89204693 -0.17638238 -0.69315833
1.2159628 -0.20897157 -0.65158457
1.2628894 -0.21651796 -0.64729387
0.99081558 -0.19394781 -0.67769003
1.0192376 -0.19894813 -0.66832036
1.3678089 -0.23340079 -0.63889557
1.1534343 -0.12689486 -0.65961385
1.1354895 -0.21979734 -0.66589731
1.2421259 -0.13643497 -0.65197223
1.2567983 -0.16381785 -0.63975722
2.0089867 -0.10189154 -0.46609604
1.0494825 -0.075501859 0.82586843
0.86992294 -0.020454437 -0.68878871
1.6762698 -0.31600493 -0.58418566
0.96209729 -0.044561271 -0.65791279
1.3006952 -0.089528404 -0.62764108
1.0398372 -0.055597398 0.69558311
1.3607267 -0.20451699 -0.63122618
0.97041833 0.036800396 0.65739906
1.5000935 -0.22437285 -0.60578221
1.042232 -0.054945145 0.54125118
1.3715135 -0.12247865 -0.60999876
1.0587865 -0.058201633 1.008541
1.0423776 0.23427089 0.9906444
1.0957413 -0.25869593 -0.66924447
1.182467 -0.25282565 -0.6690737
1.009564 -0.017728254 0.73468763
1.8039486 -0.30295029 -0.53194785
1.11752 0.062701426 -0.58586842
1.0125273 0.03208873 1.033049
1.0534952 -0.075160332 0.59765029
0.94575232 0.33184063 -0.069768831
2.2485526 -0.28779283 -0.47694114
0.95450401 0.10784259 0.5804469
1.7647327 -0.12308992 -0.53900731
0.82990938 -0.055467341 -0.72172928
1.2908098 -0.30042747 -0.64970243
1.8042158 -0.12594995 -0.52986455
2.3276472 -0.29771927 -0.47338107
1.0281359 -0.033452123 0.30546936
1.3676829 -0.31683993 -0.63987762
0.85169363 -0.15057001 -0.70515645
0.8689208 -0.1533137 -0.70053738
0.88293606 -0.17483644 -0.70131278
0.91331637 -0.18019344 -0.69239634
2.4821737 -0.31706706 -0.45551276
0.94573176 -0.16557673 -0.68333483
0.92681074 0.14524075 -0.60286462
1.5170484 -0.34876323 -0.62294734
2.052784 -0.18368308 -0.49407828
0.82988167 -0.073810183 -0.72194517
1.0247961 -0.032271717 0.16145493
1.0914965 -0.2118656 -0.66303456
0.88056004 -0.097567439 -0.69625354
2.5097728 -0.51170719 -0.4211069
1.1825041 -0.22827196 -0.66878468
1.2013646 -0.23159735 -0.66322058
1.2211847 -0.23509924 -0.65803599
0.94462842 0.092287481 0.45622897
0.99078369 -0.2150792 -0.67793876
1.0192051 -0.22056842 -0.66857481
1.0581738 -0.22830278 -0.67130911
1.153398 -0.15090536 -0.65989649
1.0324708 -0.034783307 0.46510988
0.94242442 -0.1244625 -0.67767721
0.97298163 -0.12829305 -0.67524558
1.0551261 -0.075464413 0.66542161
1.0733732 -0.1155604 0.80775541
1.0424628 -0.24731855 -0.67589694
1.1585442 -0.19982643 -0.6669392
1.0451438 -0.054898407 0.50105
1.0159857 -0.090542302 -0.66222996
1.8389038 -0.38101512 -0.55812532
1.3856305 -0.23616554 -0.6257084
1.1910213 -0.13092527 -0.64953262
1.5000026 -0.28459823 -0.60649109
1.0779639 -0.028256234 -0.6427657
1.6663709 -0.21502665 -0.57489514
0.971663 0.058453728 -0.64621043
0.8387534 -0.16732182 -0.73924905
0.86562288 -0.17178592 -0.70660162
1.0606842 -0.095258556 0.8817879
1.3174409 -0.063908517 -0.61498207
1.0072477 -0.017512098 0.71661943
1.8566619 -0.23875622 -0.52970505
2.3273776 -0.47640356 -0.47548419
1.0299577 -0.036807511 0.75220925
1.8993062 -0.2440737 -0.51949567
1.3894584 -0.067882419 -0.59584928
1.0653137 -0.095543563 0.59546953
2.3926375 -0.48911312 -0.4618786
1.0439363 -0.075353131 0.91629708
1.0487639 -0.075651757 0.89890486
2.3674119 -0.21192466 -0.49349874
2.4600832 -0.5022369 -0.44694874
1.0779755 -0.1354149 0.78860623
2.1196623 -0.18968734 -0.49144125
1.0322285 0.15900069 1.0137131
1.367641 -0.34465295 -0.64020497
0.97761655 0.07297428 -0.30093196
0.87466139 -0.19257969 -0.71080792
0.89079386 -0.19566125 -0.70293248
0.91035211 -0.1994828 -0.6997903
0.93639684 -0.18434744 -0.69323713
0.94903886 -0.20698071 -0.6889956
0.96598846 -0.21034867 -0.69047362
1.5251195 -0.3812491 -0.63076705
1.0589775 -0.09511365 0.8999325
0.82982635 -0.11049587 -0.72237694
0.87016749 0.29958105 -0.62789905
1.095776 -0.23569949 -0.6689738
1.6718942 -0.41529214 -0.61831629
2.3928449 -0.35167757 -0.46026099
2.5605533 -0.57006407 -0.39461905
1.0519934 -0.075106978 0.61739254
0.93633592 -0.22472705 -0.69371241
0.96595722 -0.23106357 -0.69071746
0.99071991 -0.25734198 -0.67843616
2.119724 -0.14871018 -0.49095896
1.05814 -0.25062925 -0.67157191
1.392645 -0.32212573 -0.63390595
1.1302136 -0.26597792 -0.65986603
1.2420101 -0.21319246 -0.65287566
0.96948957 -0.16941182 -0.68282473
1.5381017 -0.35306841 -0.60814399
1.0705464 -0.1855555 -0.66130435
1.3436785 -0.33916706 -0.64624619
0.92892915 -0.12277891 -0.6807102
1.4518296 -0.36409539 -0.62836844
1.030645 -0.13546894 -0.65798169
1.0191724 -0.24218874 -0.66882926
1.6095052 -0.40042731 -0.60166478
1.1909468 -0.18024997 -0.65011317
1.5080748 -0.31641409 -0.61430287
1.1032697 -0.075292394 -0.64984161
1.1669898 -0.10410297 -0.64824528
1.030377 -0.03412459 0.38586435
0.83868349 -0.2136769 -0.73979467
0.90904242 -0.23884036 -0.71000755
0.99742424 0.28148732 0.49843812
1.1063795 0.039868649 -0.62558341
1.0416207 -0.055883244 0.73308665
2.63112 -0.53574502 -0.42612267
0.91838765 0.13534565 -0.63711041
1.389416 -0.095985182 -0.59618002
1.0385149 -0.021190155 1.0391562
1.0538803 -0.039677024 1.0253215
2.630969 -0.63577056 -0.42729995
1.2532421 -0.34426001 -0.66749632
1.533415 -0.045159101 -0.56606036
1.0260149 -0.032153785 0.13950525
0.95929289 0.052711219 0.72003603
2.3275797 -0.34239033 -0.47390684
1.0232692 -0.015205888 0.44838375
2.0675523 -0.30523613 -0.50470722
0.84514493 -0.18683067 -0.71691751
0.98810863 0.053138722 -0.28986734
0.88287795 -0.21333288 -0.70176584
2.3927066 -0.44330126 -0.46133938
0.92620128 -0.24270231 -0.70198876
0.94900811 -0.2273878 -0.68923581
1.4959917 -0.40469167 -0.63777709
2.4819591 -0.45928296 -0.45718664
1.0749243 -0.077941135 1.0479164
1.0180763 -0.013580901 0.28991437
1.0879883 -0.13612084 0.92175806
1.1000204 -0.28280142 -0.67518687
1.0416216 -0.054410499 0.44211894
1.0118804 -0.01794441 0.75275588
0.87457484 -0.24994409 -0.71148312
1.0598813 -0.095065311 0.61600745
0.93963385 -0.2660577 -0.69944435
0.97011626 -0.27368438 -0.69759625
0.99408364 -0.27942789 -0.68365425
1.0276425 -0.28781983 -0.68140227
1.0632215 -0.29671913 -0.67912036
1.3997439 -0.35217017 -0.64144534
0.9195618 -0.2011828 -0.69086552
1.9656732 -0.52136898 -0.56803125
0.97624278 -0.21225123 -0.68126369
2.0527241 -0.22346514 -0.49454653
1.0747809 -0.23153372 -0.66759396
0.8805021 -0.13595524 -0.6967054
1.158435 -0.27218381 -0.66779089
0.97633731 -0.14961757 -0.68052644
1.0348591 -0.17981534 -0.66443169
1.3437197 -0.3117705 -0.64592373
1.1585077 -0.22394556 -0.6672231
1.0202208 0.084679276 1.0694679
1.5775158 -0.26701644 -0.60740328
1.0654006 -0.0957238 0.97362769
1.1669533 -0.12833074 -0.64853042
1.4556876 -0.27654949 -0.59827393
0.99732405 0.031637128 -0.18652754
1.0411948 -0.02090806 1.0050114
2.4597998 -0.69019222 -0.44916093
0.93002093 0.31591934 -0.2239352
1.8686327 -0.27687979 -0.53856134
1.0556407 -0.075686008 0.73234963
2.1362107 -0.39771158 -0.50391436
1.4760065 -0.04298725 -0.58133543
0.95429379 0.098345324 -0.63227636
1.0611351 -0.058420796 1.0268607
2.2081192 -0.41059637 -0.50135857
1.0702146 -0.11504778 0.90108025
2.4600124 -0.54922569 -0.44750178
0.97084677 0.067982949 0.85734564
0.98051471 0.018164758 0.73615402
2.1364598 -0.2324992 -0.50196981
0.84457731 -0.21154675 -0.72003466
0.86308718 -0.22819369 -0.7145853
1.0102916 0.032297365 1.0156094
1.0510384 -0.07493107 0.5784865
0.93035805 -0.26391688 -0.70888507
0.95234537 -0.24867436 -0.69466007
0.97014767 -0.25287893 -0.6973514
2.2484219 -0.37431023 -0.47795942
0.98724288 0.12170956 0.85941392
1.0256515 -0.033220284 0.28609005
0.845173 -0.16822526 -0.71669853
2.4877725 -0.60206145 -0.41184002
2.0674314 -0.3853797 -0.50565046
1.4002978 -0.012072279 -0.57421207
0.87454599 -0.26906556 -0.71170819
2.2306046 -0.32841867 -0.46752036
1.0530849 -0.039776534 1.0427086
0.97346199 -0.29551506 -0.70295501
1.296914 -0.35503036 -0.65713561
1.0318772 -0.31090701 -0.68769193
1.374722 -0.37440595 -0.64788449
0.87463254 -0.21170115 -0.71103299
1.4328455 -0.38891596 -0.64276034
0.98663396 -0.15103512 -0.67098737
0.97617978 -0.25400701 -0.68175513
1.5551881 -0.41930178 -0.62428319
1.079015 -0.27787408 -0.67388797
1.1176622 -0.28684974 -0.6712659
1.1583986 -0.29630291 -0.66807473
0.96945828 -0.19017202 -0.68306905
1.7717289 -0.47298375 -0.58666879
1.050921 -0.31605694 -0.68856221
1.6284432 -0.5025211 -0.61908853
1.7224675 -0.42651108 -0.58557928
0.9907518 -0.23621058 -0.67818743
1.6519488 -0.34465554 -0.60088563
0.98178077 0.049721893 0.94263452
1.5291979 -0.25913364 -0.59895426
0.97715789 0.046469606 0.08870022
1.0701766 -0.077498078 1.0108819
0.96053028 0.06447304 0.10055341
1.4146167 -0.040733438 -0.58834618
1.6563709 -0.18090107 -0.56639141
0.99222112 0.02717449 0.11969201
1.6916864 -0.18469045 -0.55830109
1.2550901 0.042266957 -0.60589606
1.9568994 -0.32755142 -0.51850629
1.5213348 -0.075014077 -0.58951151
1.0269601 -0.033110738 0.26484084
2.018595 -0.33750883 -0.51697522
2.2661724 -0.46449265 -0.48891982
1.3569162 -0.39786595 -0.66094929
0.83861351 -0.26003197 -0.74034023
0.86305863 -0.24711598 -0.71480805
2.119415 -0.353596 -0.49337044
0.90772325 -0.27819708 -0.7202965
1.0403831 -0.021060389 1.0222722
0.95652455 -0.27034378 -0.70138216
0.98373616 -0.29807144 -0.693591
1.0016917 -0.30294228 -0.6950866
1.0102326 0.0040993285 0.4331995
1.7645231 -0.26193786 -0.54064155
1.0674782 -0.3204422 -0.68523788
1.0999856 -0.30588841 -0.67545861
1.044172 -0.055245593 0.57997608
1.1448511 -0.34115359 -0.6793797
0.97830111 0.045841504 0.1290739
2.5257144 -0.3708764 -0.47763306
1.2271302 -0.36303279 -0.66670954
1.2811581 -0.37766036 -0.6699391
1.3030579 -0.38343179 -0.66426045
2.0525439 -0.34281138 -0.49595121
1.3746798 -0.40236387 -0.64821357
1.4067994 -0.41104162 -0.649324
1.4328017 -0.41790596 -0.64310157
1.0045699 -0.19636187 -0.67263585
1.207221 -0.40782198 -0.67258829
1.5551411 -0.45044658 -0.62464976
1.0832485 -0.32457659 -0.68018621
1.1135217 -0.33272704 -0.67996985
0.92962396 -0.21320367 -0.69495052
0.97621131 -0.23312913 -0.68150938
1.8766227 -0.46251449 -0.58633733
0.8463102 -0.23363972 -0.71962416
1.6283944 -0.53496969 -0.61947042
1.4678916 -0.4273935 -0.64463466
1.2969542 -0.32844862 -0.65682274
1.1082515 -0.21482058 -0.65816665
0.95178777 -0.10518736 -0.66755325
1.5381947 -0.29146683 -0.60741895
1.1482872 -0.07851702 -0.65257734
0.93914694 -0.063448168 -0.67178535
1.6230347 -0.17732543 -0.57477158
0.9433462 0.33206517 -0.088537477
1.4559971 -0.071464479 -0.59586012
1.912177 -0.32041728 -0.5291971
1.492201 -0.073409945 -0.59656805
1.2603544 0.016624326 -0.61201829
1.7381252 -0.22397435 -0.55781466
0.99230248 0.058874108 -0.62677079
1.5596184 -0.10822319 -0.58972549
2.6249113 -0.43512598 -0.47455215
2.5163589 -0.17752221 -0.36973336
2.1363976 -0.27380231 -0.50245595
0.84104234 -0.27939013 -0.74498725
0.86303008 -0.26603827 -0.71503073
0.89275646 -0.27413771 -0.71908003
0.90769345 -0.2979342 -0.72052878
0.9336772 -0.28505686 -0.71445119
0.94296199 -0.28734344 -0.70494038
0.95983034 -0.3125807 -0.70705277
0.99132341 -0.32158393 -0.70518506
2.6249869 -0.38511321 -0.47396353
1.5908983 -0.078798786 -0.58165723
1.6140667 -0.0801249 -0.56608242
1.0717345 -0.34434634 -0.69135755
1.0926783 -0.35040891 -0.69313681
1.1322609 -0.36173204 -0.6910814
1.1567628 -0.36851785 -0.68083423
0.9522683 0.10805123 0.5630073
1.0715159 -0.11543064 0.7696752
1.2270919 -0.38838321 -0.66700792
1.2811184 -0.40398857 -0.67024899
1.2968339 -0.40819383 -0.65776134
1.0363202 -0.035779607 0.58164281
1.3817601 -0.43255138 -0.65589833
0.94012928 0.092707328 0.42113423
1.432758 -0.44689602 -0.64344275
1.4597275 -0.48396391 -0.63753986
1.0855477 -0.13589308 0.90271997
1.0361115 -0.33417526 -0.69398373
1.5952635 -0.52503848 -0.62624907
0.88949317 -0.2343315 -0.71307868
0.93966442 -0.24579546 -0.69920588
1.5250272 -0.44248852 -0.63148779
1.0509546 -0.29382098 -0.68830055
0.8515082 -0.30046192 -0.71839905
1.6283454 -0.56741828 -0.61985236
1.696874 -0.5891149 -0.60434091
2.5545108 -0.47214085 -0.44175103
1.8339337 -0.63320398 -0.59689379
1.6616727 -0.54491466 -0.61154234
1.2480078 -0.31709895 -0.66114068
1.0106356 0.0034027735 0.49139187
1.7258738 -0.052752007 -0.47250336
2.0832522 -0.42871976 -0.51593369
1.0667694 -0.095665053 0.57536727
1.8685776 -0.31345683 -0.53899181
0.91196042 0.21205726 -0.081702679
1.691636 -0.21813491 -0.55869472
1.4921558 -0.10335966 -0.59692055
1.0054203 0.0045484006 0.39566213
1.4558203 -0.1886559 -0.59723943
1.0042257 0.03828907 -0.64386338
1.7765419 -0.2287668 -0.54912573
1.5595714 -0.139368 -0.59009206
